0.01534 -0.08085 0.03659
0.01531 -0.10232 0.03656
0.14999 -0.29166 -0.06938
-0.07745 0.16280 0.21715
0.11055 0.12146 0.20919
-0.23954 -0.33429 0.00733
0.02102 -0.25404 0.06636
-0.01921 -0.22548 0.13040
-0.07618 -0.31723 0.21863
0.06967 0.16288 0.25369
0.05861 -0.11586 0.00928
0.12944 -0.23951 -0.10044
0.01370 -0.09239 0.03605
0.02737 -0.15397 0.04042
-0.00358 -0.14134 0.03041
-0.13490 -0.24240 0.01715
0.20632 -0.03683 0.06358
0.18776 -0.02924 -0.12845
0.20371 -0.03584 0.04627
0.19856 -0.03374 -0.00668
-0.17350 0.29545 -0.07388
-0.18207 0.30940 0.03022
-0.17143 0.29060 -0.04252
-0.17959 0.30758 -0.08413
-0.17239 0.29273 -0.05229
-0.17373 0.29645 -0.09443
-0.02722 -0.33716 -0.22228
-0.17768 -0.30290 -0.02078
-0.08905 0.15778 0.18055
-0.16045 0.25976 0.07905
-0.16382 0.27524 -0.00563
-0.16303 0.27187 0.00428
-0.15921 0.25507 0.07506
-0.15879 0.25275 0.09877
-0.21450 -0.28063 -0.01330
-0.11485 0.09847 0.18522
-0.09902 0.01526 0.07216
0.00901 -0.04645 -0.03352
0.01551 -0.12323 -0.03544
0.00498 -0.11930 -0.03224
-0.03872 -0.02689 0.06183
-0.06020 -0.02655 0.00523
-0.05230 -0.02668 0.04444
-0.02309 -0.02712 0.02517
-0.06456 -0.02650 0.06025
-0.05014 -0.02670 -0.01461
-0.05296 -0.02666 -0.00126
-0.06785 -0.02644 0.02052
-0.06965 -0.02644 0.13867
0.19423 0.00455 -0.15121
0.20469 0.00058 -0.10479
0.20231 0.00110 0.01838
0.19381 0.00499 -0.12820
0.19958 0.00220 0.01354
0.20666 -0.00028 -0.08485
0.19706 0.00322 0.00939
0.20825 -0.00116 -0.01356
-0.04889 0.13473 -0.24047
-0.16015 0.26565 -0.11313
-0.15917 0.25856 -0.02371
-0.15814 0.25770 -0.08733
-0.15842 0.25976 -0.11384
-0.05651 -0.18738 -0.00509
-0.16165 -0.25893 -0.01675
-0.07810 -0.02393 0.14531
0.15834 -0.26325 0.12423
-0.06891 -0.22702 -0.02594
-0.03503 0.13525 -0.24788
-0.04137 -0.23496 -0.12523
-0.03051 -0.00521 0.21323
-0.12773 0.04429 0.13611
-0.17370 0.34224 -0.08339
-0.17176 0.34140 -0.02207
-0.18397 0.34734 -0.05735
-0.18246 0.34680 0.06230
-0.18190 0.34636 -0.03378
-0.17989 0.34540 -0.01733
-0.18623 0.34860 0.02951
0.01018 0.10680 -0.20746
-0.00230 -0.20276 0.09911
-0.08221 0.12788 0.20638
-0.13679 0.01131 -0.01799
-0.01708 -0.21201 -0.10790
0.10548 0.15723 0.24371
-0.10550 0.14584 0.20627
-0.20232 -0.28565 -0.02060
0.09861 0.15609 -0.24753
0.12348 0.15090 -0.19944
-0.06929 -0.23631 0.02531
-0.10595 0.20946 0.17134
-0.11488 0.24744 0.16828
0.11953 -0.23279 -0.09539
0.03564 -0.24369 0.03307
0.24366 -0.03447 -0.11060
0.24344 -0.03567 -0.02792
0.24247 -0.02960 -0.02651
-0.12815 0.03162 -0.09913
-0.13636 0.03940 -0.07143
-0.04033 -0.29666 -0.14036
-0.12634 0.25393 0.20447
0.03185 0.16690 0.25064
0.24277 -0.32220 -0.13905
-0.03559 -0.28744 0.23117
0.19537 -0.01427 -0.19487
-0.14662 0.20261 -0.13934
-0.14342 0.18354 -0.13493
0.06252 -0.02590 -0.17597
0.06335 -0.02646 -0.17137
0.12837 -0.02446 -0.17354
0.00084 -0.02606 -0.18753
0.07062 -0.02514 -0.18022
-0.01614 -0.15121 0.00734
-0.01591 -0.09832 -0.00395
-0.01583 -0.08077 -0.00717
-0.01610 -0.13402 0.01093
0.14105 0.01416 0.20365
-0.00270 -0.22507 -0.12980
-0.12836 0.06436 -0.05644
-0.12944 0.06213 0.05674
-0.15953 0.26352 -0.11982
-0.09706 0.11241 -0.09014
-0.08855 0.02821 -0.20520
-0.07067 -0.02538 -0.14722
-0.11714 0.25170 0.16213
0.06008 -0.25441 0.05926
0.03383 -0.04648 -0.03854
-0.21945 -0.33736 0.02041
0.03032 0.16926 0.22019
0.06324 0.16914 0.23754
0.05793 0.16919 0.22623
0.04684 0.16929 0.20420
-0.02559 0.04253 -0.20047
0.01463 -0.24019 0.09666
0.00942 -0.24255 0.10968
0.02937 -0.09932 0.04032
0.12711 -0.21744 -0.05220
-0.12390 0.05502 -0.18074
0.16273 -0.25052 0.08193
0.09886 -0.02671 0.11518
-0.02239 -0.02657 0.11879
0.11296 -0.02658 0.15187
0.03737 -0.02655 0.13878
0.04405 -0.02683 0.07079
0.05395 -0.02678 0.08708
0.08866 -0.02667 0.12260
0.03954 -0.02671 0.10040
-0.01625 -0.02656 0.12131
0.03526 -0.02686 0.05996
0.03598 -0.02677 0.08485
0.05254 -0.02674 0.09695
0.02258 -0.02681 0.06896
0.07517 -0.02658 0.14246
0.11559 -0.02662 0.14374
-0.14443 0.32144 0.16487
0.07695 -0.02688 -0.03608
-0.03258 0.13593 0.24875
0.19998 0.00600 0.18491
-0.12974 0.09558 -0.06364
-0.13255 0.11357 -0.08197
-0.13400 0.11683 0.02038
-0.13381 0.12070 -0.07242
-0.13106 0.10403 -0.07215
-0.17117 0.33800 0.14535
0.08665 0.14751 -0.25173
-0.02480 -0.02680 -0.04083
0.11845 -0.25540 0.04276
-0.03732 -0.23416 -0.13573
0.02580 -0.14127 -0.03854
0.02704 -0.12197 -0.03889
-0.07863 0.09843 -0.19735
-0.02406 -0.30899 -0.16878
-0.01519 0.02770 0.21701
0.15515 0.00852 -0.16209
0.14167 0.00858 -0.16457
0.15535 0.00979 -0.17356
0.08325 -0.18497 -0.03622
-0.02478 -0.24886 0.01197
0.23123 -0.01636 0.15712
-0.04876 -0.28127 0.13878
-0.08017 0.00768 0.11719
-0.12751 -0.01084 -0.12138
0.18696 -0.02823 -0.14383
-0.04392 -0.27951 -0.20875
0.16318 -0.02737 -0.11442
0.16615 -0.02756 -0.01923
0.18197 -0.02834 0.03051
0.17542 -0.02805 0.06581
0.17135 -0.02783 0.01736
0.17832 -0.02818 0.05190
0.18099 -0.02826 -0.02531
0.17877 -0.02814 -0.04932
0.22984 -0.32446 0.12824
-0.09075 0.12243 0.10702
0.05520 -0.09430 -0.01223
-0.12639 0.29378 0.18935
-0.00769 -0.10223 0.02868
-0.06674 -0.33365 -0.20257
-0.09584 0.06360 0.06420
-0.09658 0.06083 0.05052
-0.09498 0.06560 0.03314
-0.10197 0.04153 -0.01743
-0.09814 0.05319 -0.04878
-0.09940 0.04866 -0.06583
-0.11539 0.08688 -0.15085
-0.09844 0.11549 0.09203
0.03368 -0.20276 -0.05087
0.03410 0.16056 0.17518
0.02725 0.15610 0.17482
0.10215 0.01026 0.20612
0.12526 0.13189 -0.19993
-0.06906 -0.19575 0.01628
0.08918 0.16044 0.18338
-0.08963 0.12745 0.12515
0.09555 -0.24377 -0.02060
-0.01306 -0.00467 0.21128
-0.16921 0.28648 0.11524
-0.12219 0.02874 -0.19385
-0.03283 -0.29094 0.22719
-0.07595 0.01723 -0.18134
-0.03514 -0.28607 0.11735
-0.02093 0.05829 0.20700
-0.04651 -0.25918 -0.13863
-0.04192 -0.27502 -0.11984
-0.02556 -0.20023 -0.05534
-0.12048 0.24335 0.14036
0.10401 0.14963 0.24950
-0.13053 0.02627 0.05406
-0.19405 -0.32207 0.02108
-0.09416 -0.02534 -0.06511
-0.09369 -0.02518 -0.12989
-0.07933 -0.02603 -0.07646
-0.00594 -0.26765 0.08182
-0.06821 -0.32756 0.24761
0.04267 -0.24616 -0.01311
0.02306 -0.25314 -0.07405
-0.12362 0.29626 0.17577
0.12348 0.14549 -0.18825
-0.12291 0.29498 -0.16709
-0.06560 0.00996 -0.13498
-0.06370 -0.30020 -0.24685
0.19872 -0.32393 -0.15407
-0.19909 0.34929 -0.11622
0.16496 -0.28428 0.08139
-0.05136 -0.29073 -0.15750
-0.01323 -0.18149 -0.05998
0.22538 -0.34005 -0.14972
-0.10532 0.27261 -0.19109
-0.10130 0.04407 0.04056
-0.09645 0.06009 0.09770
-0.09793 0.05632 0.11575
-0.10333 0.03782 0.03084
-0.03227 -0.25238 -0.01341
-0.06717 -0.26793 0.01303
0.19939 -0.28268 0.15400
0.01936 -0.02324 -0.19723
0.19220 -0.02892 0.16347
-0.10840 0.08950 -0.20722
-0.07248 -0.00488 0.20895
0.10050 0.12394 0.22302
0.12024 -0.02670 -0.10230
-0.11026 -0.00025 -0.16054
-0.11927 0.27117 0.20066
0.10257 -0.24559 0.02877
-0.03986 -0.22147 -0.02735
-0.00309 -0.26928 -0.14709
-0.03735 -0.23158 -0.02749
0.07411 0.13469 -0.18038
0.17311 0.00610 0.09935
0.17439 0.00604 0.07755
0.17476 0.00599 0.12571
0.18153 0.00567 0.00999
0.17469 0.00599 0.13769
0.17361 0.00611 0.03937
0.16593 0.00649 0.13002
-0.01261 -0.28573 -0.11937
-0.06093 -0.22026 -0.02633
-0.15041 0.27337 -0.17979
0.16752 -0.02758 -0.10786
0.18011 -0.02819 -0.08198
0.16057 -0.02724 -0.12667
0.17264 -0.02781 -0.12849
0.17554 -0.02804 0.04223
0.18341 -0.02844 0.08243
0.07820 -0.00457 0.20943
0.17832 -0.32361 -0.11145
-0.00374 -0.26181 0.06955
0.07565 -0.18737 -0.05363
-0.09201 0.06767 0.16835
-0.00889 0.02088 -0.18594
-0.10130 0.03059 -0.11323
0.03060 -0.19580 0.05718
-0.00839 -0.05175 -0.02780
0.18956 -0.34088 0.15285
0.21854 -0.00489 -0.11797
0.20115 0.00151 0.03049
0.19482 0.00404 0.03094
0.20560 0.00024 -0.11280
0.19687 0.00359 -0.07653
0.19335 0.00434 0.11124
0.20167 0.00171 -0.08392
0.00321 -0.04788 -0.03172
-0.08353 0.00786 0.00890
-0.08167 0.00795 -0.07989
-0.07651 0.00773 0.03842
0.21501 -0.04399 0.02645
0.20834 -0.03644 -0.09675
0.21816 -0.04723 0.03339
0.21111 -0.03997 0.01816
0.21829 -0.04744 0.04626
0.00110 0.07605 0.22251
0.16309 -0.29214 -0.12561
-0.12142 0.03948 -0.13223
-0.07983 0.09483 -0.18341
-0.09187 0.05890 -0.20174
0.05816 -0.25249 0.03761
-0.17672 -0.33138 -0.01186
-0.02069 -0.29780 -0.19383
0.01276 0.00968 0.19424
0.14559 0.00734 -0.02027
0.10914 0.00733 -0.02640
0.05391 0.00738 0.02187
0.10545 0.00731 -0.04107
0.14029 0.00742 0.05065
0.14645 0.00738 0.01468
0.17432 0.00721 -0.12536
0.16248 0.00735 -0.01629
-0.02436 0.00749 0.12569
0.15504 0.00744 0.05993
0.07212 0.00745 0.08212
0.11357 0.00738 0.01631
0.08460 0.00739 0.02680
0.11129 0.00737 0.00964
0.03586 0.00741 0.04782
0.10157 0.00730 -0.04843
0.10099 0.00740 0.03778
-0.00344 0.00745 0.09132
0.13205 0.00726 -0.08004
0.07699 0.00753 0.14372
0.07530 0.00737 0.01160
0.14002 0.00740 0.02905
-0.00743 0.00751 0.13406
0.09120 0.00748 0.10259
0.15563 0.00741 0.03627
0.09305 0.00754 0.14605
0.16869 0.00721 -0.12655
0.06523 0.00740 0.04143
0.17670 0.00720 -0.13640
0.09798 0.00730 -0.04275
-0.01839 0.00746 0.09589
-0.01131 0.00744 0.08368
0.09271 0.00737 0.01160
0.03782 0.00739 0.03463
0.09177 0.00753 0.14087
0.14809 0.00744 0.06204
0.04068 0.00743 0.06309
0.15591 0.00742 0.04593
0.04469 0.00751 0.13240
0.15997 0.00734 -0.02246
0.03831 0.00738 0.02367
0.02022 0.00750 0.12802
0.22955 -0.01227 -0.11690
0.23912 -0.02309 0.01118
0.23289 -0.01565 -0.11257
0.24025 -0.02316 -0.09719
0.23761 -0.02146 -0.00054
-0.12007 0.26250 0.20432
0.22022 -0.33445 -0.11560
0.08112 0.13052 -0.22354
-0.00840 0.07404 -0.20842
-0.08090 0.09642 -0.20272
-0.02611 -0.31306 0.18391
-0.00142 -0.15933 0.03196
-0.14784 -0.30564 0.00581
-0.10179 0.14169 -0.09440
-0.02902 -0.25677 0.17727
-0.02440 -0.27985 -0.10330
0.17448 -0.02568 0.17273
0.14204 0.00219 -0.20685
-0.03909 -0.21617 0.02743
0.12496 -0.01985 0.19576
0.01983 -0.02343 0.19803
0.09738 -0.01913 0.19949
-0.13202 0.05625 0.08247
-0.13455 0.05076 0.08454
-0.13786 0.04339 0.07657
-0.04833 0.13544 -0.18446
-0.06685 0.00745 -0.00561
-0.06443 0.00747 0.03763
0.01524 0.12365 0.21346
0.10913 0.12323 -0.20258
-0.01604 0.15399 -0.25573
-0.00823 0.14964 -0.25557
-0.00438 -0.17636 0.05532
-0.18541 -0.29032 -0.02027
0.05039 -0.02690 0.03462
0.19085 0.00769 0.19383
0.21737 -0.35056 -0.12949
-0.01482 -0.04301 -0.01969
0.08604 0.00757 0.15680
-0.00013 0.00760 0.15865
0.06152 0.00760 0.16220
-0.03613 0.00754 0.14371
0.05950 0.00755 0.15023
-0.00774 0.00755 0.14705
-0.02714 0.00768 0.17927
0.03863 -0.08141 -0.03500
0.20515 0.00136 -0.13523
-0.08096 0.14390 0.18605
0.16381 -0.01865 0.19753
0.02060 -0.08787 -0.03697
0.01939 -0.04002 -0.03657
-0.08046 -0.32838 0.23312
0.08701 -0.21935 -0.07763
0.17767 -0.31558 0.14458
-0.07114 -0.33237 0.20380
-0.07362 -0.32410 -0.22363
-0.07758 0.12376 0.16560
0.12046 -0.26779 -0.04160
-0.02602 0.02064 -0.18620
-0.05846 -0.28289 -0.18564
-0.17116 -0.31750 0.00806
0.21044 -0.01771 -0.18476
0.09790 -0.21450 -0.08130
-0.09782 0.17307 -0.20966
0.20862 -0.33909 -0.15921
-0.07635 0.01759 -0.13933
0.06097 -0.15558 0.00353
-0.04039 -0.22768 0.11825
-0.12668 0.04950 0.12223
-0.15511 0.28735 -0.17898
-0.09427 0.05867 0.17995
0.08094 -0.18808 -0.04884
0.07224 -0.21134 -0.00175
0.23031 -0.01476 0.07230
0.22888 -0.01326 0.06667
0.23079 -0.01506 0.05035
0.22570 -0.00938 -0.00874
0.22939 -0.01388 0.07791
0.03287 0.08227 -0.22256
-0.04439 0.16909 -0.20407
-0.03301 0.13894 -0.25172
-0.16049 0.33381 0.15014
-0.13623 0.04579 0.09328
0.08661 -0.19377 0.05571
0.06018 -0.02633 0.16154
-0.04821 -0.02613 0.16020
-0.02444 -0.02581 0.18065
0.11311 -0.02641 0.16369
-0.05051 -0.02604 0.16526
0.08023 -0.02644 0.15788
-0.05250 -0.02633 0.14868
-0.02456 -0.02598 0.17117
0.00163 -0.02622 0.16099
0.04357 0.08905 0.20722
0.12401 -0.26171 0.10503
0.18622 -0.27991 -0.09392
0.17271 0.01025 0.20157
0.17569 -0.29285 0.14051
0.18119 -0.01451 -0.19887
0.20681 -0.29046 0.16300
-0.11062 0.19217 -0.09951
-0.11853 0.23705 -0.09610
-0.11505 0.21558 -0.06121
-0.10626 0.16170 0.01815
-0.11983 0.24451 -0.09642
-0.11095 0.19248 -0.06656
-0.11209 0.19796 -0.04604
-0.10620 0.16583 -0.07590
-0.10417 0.14807 0.05448
-0.11108 0.19059 -0.01184
-0.12083 0.25077 -0.10925
-0.12158 0.25601 -0.12832
-0.11459 0.21457 -0.09508
-0.10862 0.17704 -0.02116
-0.10463 0.15141 0.03942
-0.10996 0.18455 -0.01898
0.22677 -0.05190 -0.12698
0.07663 0.13066 0.22428
-0.00179 0.06861 0.19210
0.20695 -0.30105 -0.15944
-0.14477 0.27115 0.19129
-0.09015 -0.01891 0.18898
-0.03897 0.13867 0.25120
-0.23947 -0.32775 -0.01812
0.12481 0.14975 -0.22536
-0.11235 0.00379 -0.16688
-0.07386 -0.23450 -0.02567
0.01589 0.16628 -0.25043
0.05722 -0.02712 -0.01531
-0.04171 -0.25301 -0.16509
-0.12437 0.26378 -0.04342
-0.12114 0.24659 0.03825
-0.12077 0.24452 0.04932
-0.12119 0.24809 0.01956
-0.07773 -0.29567 0.22308
-0.12284 0.27318 -0.14765
-0.09739 0.05845 0.05953
-0.09842 0.05455 0.03906
-0.09592 0.06223 0.02059
-0.09461 0.06543 -0.02033
-0.09642 0.06045 0.01445
-0.10250 0.04035 0.00426
-0.16378 0.32908 -0.15950
-0.00899 -0.06744 0.02811
0.05408 0.16505 -0.25179
0.15650 0.00727 0.07759
0.16616 0.00692 0.00415
0.16101 0.00697 0.05487
0.09533 -0.19121 0.03718
-0.02215 -0.20444 0.09525
-0.02754 -0.02670 0.08154
0.02771 -0.04708 0.04035
0.10206 0.15105 -0.24877
-0.03829 -0.28217 0.22616
-0.12851 0.04570 0.16390
-0.12090 0.14333 -0.18838
-0.12309 0.13826 -0.18520
-0.03587 0.15987 0.25503
-0.03888 -0.00717 -0.21278
-0.15339 -0.25082 -0.01288
0.17173 -0.28138 -0.08172
0.19837 -0.32279 0.15993
0.17869 -0.33589 -0.13828
0.00754 -0.24712 -0.01900
-0.18822 -0.31836 -0.02359
0.19107 -0.27571 -0.12685
0.19183 -0.03147 0.05463
0.18523 -0.02912 0.10719
0.19583 -0.03300 0.05687
0.18450 -0.02849 -0.00141
0.18389 -0.02847 0.06472
0.01111 0.03400 -0.21537
-0.02122 -0.24185 0.02598
0.24095 -0.03164 0.13500
-0.08769 0.01679 -0.12797
-0.13557 0.01777 -0.00688
-0.01205 -0.27191 -0.08921
0.19253 -0.30053 -0.09846
0.05807 -0.14557 -0.00811
0.03514 0.07366 0.20986
0.20327 0.00050 0.09924
0.20580 -0.00043 0.07591
0.21454 -0.00391 0.11824
0.20342 0.00046 0.09032
0.21361 -0.00353 0.10653
0.05500 -0.11105 -0.01252
-0.09495 0.05402 0.16926
-0.12025 0.01754 -0.14587
0.19689 -0.28189 0.10870
0.18218 -0.27164 -0.09068
-0.14083 0.31879 -0.13661
-0.02351 0.16141 0.25436
0.06175 -0.16453 -0.01302
-0.17844 -0.31949 0.01834
-0.12554 0.06756 0.12868
-0.01904 -0.17378 0.03480
-0.08135 0.11916 -0.12707
-0.00294 0.13448 -0.18764
0.00291 -0.27134 -0.09167
0.06084 -0.10579 -0.00197
-0.12655 0.09497 0.12442
-0.05284 -0.01335 0.20849
-0.14591 0.18909 -0.07667
-0.15619 0.24266 0.07642
-0.13990 0.15530 -0.07326
-0.15149 0.21790 0.01589
-0.14937 0.20507 0.05327
-0.14385 0.17590 -0.01522
-0.15352 0.22902 0.02540
-0.15469 0.23353 0.10429
-0.15166 0.21824 0.04103
-0.13644 0.13616 -0.08281
-0.14020 0.15673 -0.06329
-0.15601 0.24634 -0.10067
-0.14680 0.19266 -0.02311
-0.15237 0.22304 0.00895
-0.14727 0.19623 -0.05889
-0.15267 0.22418 0.02897
-0.14988 0.21194 -0.10003
-0.14858 0.20186 0.00718
-0.15266 0.22486 0.00167
-0.13696 0.13881 -0.07243
-0.14841 0.20213 -0.03897
-0.14752 0.19854 -0.09357
-0.14661 0.19065 0.01354
-0.14253 0.16877 -0.02489
-0.15568 0.24369 -0.07253
-0.04321 0.13563 -0.18223
-0.18718 0.34991 -0.10146
0.07325 0.16828 -0.24530
-0.14477 -0.30451 -0.00649
0.22528 -0.28266 -0.13032
-0.01304 -0.29936 -0.15501
-0.05447 0.13476 0.21112
-0.04571 0.13472 0.21677
0.20201 -0.03287 -0.14692
0.11755 -0.23631 0.10025
0.14720 -0.26791 -0.11547
0.22652 -0.34646 0.13745
-0.17121 0.34114 0.06049
-0.17396 0.34252 0.08166
-0.15818 0.33461 -0.05561
-0.17515 0.34313 0.05620
0.08179 -0.22856 0.01171
0.04912 -0.21580 -0.05387
-0.03526 -0.26429 0.18782
-0.09511 0.18091 -0.17570
-0.08504 0.15398 -0.18163
-0.09378 0.01128 0.12529
-0.07043 -0.02560 0.16743
0.06020 -0.17830 -0.05019
-0.10008 0.14774 -0.14340
-0.10697 0.17431 0.14239
-0.11004 0.19464 0.14464
-0.03785 -0.25197 -0.02270
-0.07910 0.15545 -0.20660
-0.15554 0.24193 -0.03387
-0.15591 0.24240 0.02653
-0.15427 0.23407 -0.00684
-0.15235 0.22133 0.06922
-0.15799 0.25756 -0.10695
-0.15334 0.22980 -0.04210
-0.15716 0.25314 -0.11570
-0.15345 0.22959 -0.01017
-0.15065 0.21372 -0.00384
-0.14144 0.16405 -0.07849
-0.14051 0.15823 -0.05381
-0.14775 0.19854 -0.04424
-0.14980 0.20704 0.07048
-0.13834 0.14680 -0.08344
-0.15537 0.23925 0.03066
-0.14120 0.16178 -0.04176
-0.14434 0.18069 -0.09297
-0.15465 0.23719 -0.04456
-0.13958 0.15368 -0.07983
-0.15701 0.25158 -0.08705
-0.15667 0.24906 -0.06438
-0.15332 0.23119 -0.09813
-0.13286 0.30368 -0.18478
-0.02103 -0.24376 -0.04223
0.08557 -0.20191 -0.01264
0.09610 0.16239 -0.23068
0.06076 0.12183 0.20860
-0.07498 -0.02424 0.16937
0.16525 -0.01994 -0.19076
-0.17936 0.32625 0.15606
-0.13409 0.00429 -0.09223
-0.15858 0.25946 0.14923
0.03546 -0.07764 0.03847
-0.13418 -0.29394 0.01859
-0.12702 0.03286 0.10785
-0.18233 0.34690 -0.09366
0.11085 -0.22070 -0.03292
0.22963 -0.02299 -0.16377
-0.15779 0.33433 0.04878
0.13844 0.01276 0.18616
0.06111 -0.03175 0.00243
-0.10776 -0.22053 0.01147
-0.16331 0.31835 -0.17194
-0.21732 0.34813 0.05736
0.04872 -0.24615 0.02704
-0.12423 -0.01577 0.09720
0.00131 0.08694 0.19646
0.09329 -0.21976 0.08464
0.06351 -0.16364 0.00481
-0.09108 -0.22285 -0.02446
0.01673 0.09219 -0.19429
0.00235 0.14375 0.25579
-0.10884 -0.02135 -0.06697
-0.10765 -0.02152 -0.12051
-0.12038 -0.01743 -0.08213
-0.11539 -0.01922 -0.05162
-0.11726 0.09000 0.18505
-0.11895 0.08537 0.18817
-0.01452 -0.12539 -0.02114
-0.09809 0.11697 -0.06356
-0.09497 0.09679 -0.02581
-0.09568 0.09936 0.04015
-0.09620 0.10488 -0.04538
-0.04265 -0.24300 0.14969
0.15698 -0.26144 -0.11899
0.18097 -0.30770 -0.09292
-0.00996 -0.01928 -0.20539
-0.03307 -0.30087 -0.14709
-0.18235 -0.30066 0.01888
-0.11807 0.10711 0.16399
-0.09349 0.04733 0.16058
0.04317 0.00329 -0.20658
-0.13454 -0.27253 -0.02251
-0.09239 0.01047 -0.03604
-0.08964 0.00962 -0.05685
-0.04153 -0.17788 -0.01721
0.00400 0.07440 0.19238
-0.04205 -0.17750 0.00851
0.11687 0.15391 0.23293
-0.03173 -0.22928 -0.02802
0.22502 -0.00774 -0.14571
-0.21077 0.34881 -0.09822
0.01587 0.16889 -0.23149
0.02897 0.16881 -0.24668
0.02692 0.16892 -0.22207
0.04797 0.16900 -0.19845
-0.19714 0.34351 -0.12776
-0.01317 -0.06878 0.02447
-0.04203 -0.27311 -0.19884
-0.21040 0.32717 -0.00073
-0.19915 0.32184 -0.06495
-0.20415 0.32371 0.01221
-0.19791 0.32142 -0.08862
-0.20189 0.32256 0.00784
0.12466 -0.01696 0.20123
0.07155 -0.02390 0.19271
-0.06103 -0.29284 -0.24318
0.10108 -0.02677 0.08391
0.09741 -0.02678 0.07914
0.20290 -0.32397 -0.10288
-0.02807 -0.32448 0.21404
-0.02320 -0.20694 -0.04640
-0.11115 -0.26974 -0.02336
-0.06999 0.16465 -0.19531
-0.02130 -0.18710 0.03279
-0.12638 0.06393 -0.11384
-0.08935 0.21990 -0.20463
-0.07630 -0.34035 0.22648
0.10210 -0.27192 -0.04710
-0.09349 0.04458 0.18398
0.07132 0.13354 -0.18984
-0.00265 0.14657 0.17433
0.05949 0.14481 0.17462
-0.20135 0.34480 0.12166
-0.05280 -0.33432 0.18542
0.04711 -0.00802 -0.20782
0.04613 0.13932 0.25264
-0.02590 -0.28058 0.19767
-0.24285 -0.32330 -0.00234
-0.11909 0.07713 -0.15024
-0.13011 -0.00498 0.03661
-0.13041 -0.00532 0.07072
-0.03078 -0.26536 0.08157
-0.13401 0.11965 -0.03022
-0.13086 0.10229 -0.06273
-0.13465 0.11945 0.04558
-0.02686 -0.22069 -0.11922
-0.12337 0.05955 -0.14766
0.03928 -0.02694 -0.05900
-0.00339 -0.28574 -0.14488
-0.01374 -0.29044 0.13201
-0.18586 -0.27134 -0.00565
-0.07862 0.10228 -0.14913
0.17486 -0.26328 -0.11633
0.16969 0.01269 0.18971
0.13044 -0.26359 0.10946
-0.09093 -0.01767 -0.14645
-0.01365 -0.10619 -0.02277
0.05458 -0.24940 0.03083
0.18444 -0.27622 0.09768
-0.12180 0.24765 0.05613
-0.12150 0.24534 0.07373
-0.12896 0.28436 -0.10534
-0.12000 0.23909 0.08731
-0.12561 0.27099 -0.08322
0.01509 -0.02691 -0.04315
-0.22878 -0.31700 0.01994
0.00515 0.04286 0.18913
0.09651 -0.19642 -0.04857
-0.00854 -0.25917 0.15446
-0.05097 -0.27181 -0.15651
-0.09814 -0.21702 0.01823
-0.05043 -0.32055 0.25512
-0.07707 0.14497 -0.20918
0.11860 -0.00370 -0.20694
0.06170 -0.01578 -0.20499
-0.05479 0.16915 0.19942
0.05157 -0.24282 0.05774
-0.01478 0.16460 0.25268
0.16365 0.00661 0.14541
0.15981 0.00685 0.10776
0.15507 0.00710 0.14935
0.18441 0.00547 0.06764
0.19132 0.00514 -0.02676
0.15495 0.00712 0.12176
-0.07325 -0.20097 -0.01942
-0.02183 -0.02367 0.20089
0.03036 -0.21848 -0.05910
-0.16780 0.28446 0.12010
0.23010 -0.05491 0.07748
-0.18956 0.31665 0.09249
0.09151 -0.25062 0.08375
0.01786 0.15315 -0.17374
0.12633 0.13619 -0.22629
-0.21124 -0.29930 0.01997
-0.09642 0.14596 -0.15713
-0.09786 0.14823 -0.15292
-0.03259 -0.33819 0.19631
-0.07617 0.14397 -0.18911
-0.06359 -0.28813 0.19160
-0.02068 -0.29354 -0.13435
0.21463 -0.04140 -0.15261
-0.08420 0.09343 -0.13005
-0.06875 0.13782 -0.22860
-0.10081 0.07411 0.20842
-0.20774 0.35191 -0.03842
-0.06966 0.00754 0.12409
-0.13180 0.03041 0.05681
0.07797 0.13159 -0.23406
-0.14791 0.23426 0.16867
-0.15013 0.23404 0.15871
-0.13748 0.14222 0.14463
-0.13456 0.01970 0.03696
0.00985 -0.26702 0.10554
0.16658 0.00990 0.20444
0.18466 -0.33465 0.11096
0.11045 0.01337 -0.18811
0.11000 0.01092 -0.18250
0.22009 -0.01193 0.17722
-0.08222 0.10295 0.13440
-0.02625 0.13452 0.19956
0.22523 -0.28636 0.14459
0.02646 -0.24573 -0.06865
0.11814 -0.26867 0.10133
-0.17623 0.34386 0.12883
-0.08502 -0.01574 -0.20541
-0.09333 0.14786 -0.17006
-0.09536 0.23976 0.19806
-0.01850 -0.02670 0.08667
-0.05784 -0.02650 0.12709
-0.07652 0.16284 0.22349
-0.08440 0.00793 -0.03410
-0.07999 0.00771 0.09583
-0.08456 0.00790 -0.01191
-0.05093 0.16907 0.18724
-0.12372 0.26782 -0.13367
-0.00736 -0.28961 0.14167
-0.04151 -0.28667 0.23891
0.06880 0.15084 0.25619
-0.04586 -0.33540 0.24905
-0.09571 0.17839 -0.20986
-0.04738 0.01022 0.19409
-0.08266 -0.02195 0.16880
0.02920 -0.24522 -0.03336
-0.19541 0.35132 0.03741
-0.19351 0.35061 0.10152
-0.20229 0.35181 0.02435
0.10806 -0.20040 -0.04221
0.13081 -0.29069 -0.07849
0.02655 -0.24669 -0.02866
-0.04434 0.13474 -0.19626
-0.04657 -0.33757 -0.24751
-0.02107 -0.28210 -0.19438
0.23897 -0.05302 -0.05642
0.05175 -0.16237 0.02372
0.24165 -0.02971 0.11254
0.24302 -0.04380 0.09569
0.24306 -0.03952 0.05583
-0.11368 0.28534 -0.18323
-0.09326 0.09351 -0.10991
-0.10407 0.11498 0.20721
0.21039 -0.29250 -0.10832
0.13087 -0.29388 -0.08895
0.01346 -0.26351 0.08901
0.24080 -0.31486 0.13979
-0.16326 0.28791 0.16097
-0.07714 0.10875 -0.14621
0.00226 -0.23916 -0.13279
0.11671 0.13659 -0.18271
-0.09868 0.24787 -0.18643
-0.02724 -0.22606 -0.02851
0.00520 0.01065 -0.19409
0.14762 -0.25829 -0.06270
0.22078 -0.34920 -0.12391
0.23718 -0.32830 0.13520
0.21626 -0.31753 -0.16564
0.22525 -0.29234 0.15380
-0.09107 0.07156 0.18121
-0.11678 0.27908 -0.17116
-0.12915 0.06968 0.10766
0.06961 -0.22983 0.00112
-0.13518 0.30437 0.14956
0.11953 0.13555 0.24143
0.00136 -0.24946 -0.04158
-0.14648 0.31584 0.04773
-0.13782 0.30076 -0.02193
-0.14326 0.31050 0.00531
-0.13519 0.29394 0.09682
-0.13936 0.30325 0.00277
-0.13410 0.29243 0.06435
0.08177 -0.23792 -0.00959
-0.09812 0.24382 0.20004
-0.12985 0.08079 0.09703
-0.12982 0.06780 0.09554
-0.12838 0.07825 -0.03914
-0.12965 0.06753 0.07980
0.13417 -0.22990 0.05627
-0.13583 0.00825 -0.03374
-0.11595 0.10628 0.16960
-0.06554 -0.23336 0.02556
-0.05903 -0.27615 0.19409
0.07041 0.13273 -0.22764
0.01829 -0.16093 0.03948
0.01132 0.05837 -0.18994
-0.07325 0.01333 0.14409
-0.14138 0.21662 -0.17212
-0.13710 0.18974 -0.16830
-0.14909 0.23787 -0.15699
-0.07014 0.14755 -0.24269
-0.04251 -0.28352 0.23433
-0.00985 -0.28820 0.15764
0.06121 -0.01865 -0.20117
0.07980 -0.01995 -0.19690
0.20439 -0.31673 -0.15817
-0.08921 0.13004 0.14561
0.22987 -0.04760 0.14725
0.04472 -0.07286 0.02739
0.03665 -0.22334 -0.04886
-0.12966 0.09797 -0.10348
0.05044 0.16181 0.25488
0.07022 -0.24136 -0.06714
0.22771 -0.02939 0.16744
-0.05401 0.00693 0.20007
0.04839 0.16450 -0.25251
-0.07289 0.15723 -0.19401
-0.10209 0.02633 -0.09868
-0.10367 0.02785 -0.06629
-0.10148 0.03437 -0.08106
-0.01060 0.13443 0.20257
0.01879 -0.16576 -0.04447
-0.13367 0.26828 -0.20031
-0.08272 0.01434 -0.20815
-0.17258 -0.26390 0.01123
0.23527 -0.05401 0.09008
0.12928 -0.02665 0.13611
-0.15571 0.28797 0.18279
0.00323 -0.21509 -0.11504
0.14703 -0.29862 -0.08426
0.23728 -0.30567 -0.12717
-0.20349 0.32480 -0.09807
-0.01974 -0.16989 0.02749
-0.10002 0.09450 -0.20921
0.07756 0.15768 -0.25378
0.05151 -0.25117 0.04194
-0.12766 0.05241 0.16689
0.00322 -0.02691 0.03791
-0.20580 0.33062 0.12071
-0.11424 0.16387 -0.19867
0.02784 -0.24498 -0.04262
-0.09358 0.07683 -0.07596
-0.09427 0.08806 -0.06960
-0.09372 0.08600 -0.09539
-0.18100 0.30793 0.09986
0.08432 0.16577 -0.21142
-0.02543 -0.02690 -0.03066
-0.03626 -0.02677 -0.05940
0.23440 -0.30615 -0.15181
-0.07657 0.11092 -0.15264
-0.05477 -0.25449 -0.02537
-0.20222 -0.34916 -0.01623
-0.13659 0.04366 -0.06713
-0.13191 0.05629 0.07076
-0.13281 0.05394 0.04887
-0.04359 0.00763 0.17365
0.10380 0.00874 -0.17148
0.07544 0.00801 -0.16904
0.11064 0.00824 -0.16598
0.16873 -0.32142 0.13404
0.19214 -0.30405 0.15525
0.19794 -0.27834 0.12525
0.18223 -0.26318 -0.10355
0.02377 0.13324 0.19925
-0.14374 -0.30142 -0.01687
-0.10394 0.02365 0.04830
-0.11982 0.10920 -0.15155
0.03858 -0.09186 -0.03500
-0.04828 -0.28786 -0.14520
0.04514 -0.23045 0.05357
0.22755 -0.05395 -0.10214
0.23178 -0.05520 0.05537
0.14949 -0.28054 -0.11698
-0.05973 -0.30818 0.25167
0.10101 -0.22711 -0.02490
-0.04917 -0.21785 -0.02693
0.03091 -0.20773 -0.05764
-0.15277 0.24038 -0.14379
-0.12693 0.14328 -0.17384
-0.13248 0.15663 -0.16218
-0.12442 0.13301 -0.17616
0.03673 -0.21193 0.04911
0.03429 0.11079 0.22730
-0.09691 0.01019 -0.20953
-0.11089 0.18729 0.04995
-0.12176 0.25634 -0.11379
-0.10969 0.17980 0.06427
-0.11296 0.19731 0.11377
-0.11443 0.20717 0.07631
-0.11921 0.23789 -0.00786
-0.11750 0.22759 0.00134
-0.11413 0.20671 0.03661
-0.11918 0.23320 0.12900
-0.10472 0.15051 0.07145
-0.11915 0.23658 0.02166
-0.11099 0.18618 0.10279
-0.11487 0.20916 0.09390
-0.11231 0.19403 0.09737
-0.11687 0.22210 0.05640
-0.12054 0.24591 -0.01314
-0.11336 0.20357 -0.00424
-0.11911 0.23893 -0.05553
-0.11861 0.23124 0.08753
-0.11482 0.20973 0.06740
-0.12860 -0.00613 -0.05568
-0.13326 0.00137 0.00638
-0.13245 0.00033 -0.02766
-0.13203 0.00017 -0.07916
0.17031 -0.32012 -0.12216
0.05522 -0.01692 0.20586
-0.13059 0.09931 -0.03763
-0.13113 0.09626 0.09047
-0.13177 0.10378 0.01480
-0.13136 0.09822 0.07789
-0.13064 0.09794 -0.00398
-0.13230 0.10744 0.00410
0.07890 -0.19290 0.06376
0.00646 -0.02351 -0.19799
0.03745 -0.24257 -0.04060
0.23892 -0.05056 0.12366
0.04744 -0.24614 0.01032
-0.12953 -0.00576 0.02220
-0.12808 -0.00840 0.01323
-0.12394 -0.01463 -0.06099
0.22383 -0.05036 0.13739
-0.10155 0.19973 -0.21008
-0.21100 0.32701 0.04609
-0.21050 0.32696 0.02548
-0.20819 0.32639 -0.03869
-0.20203 0.32348 -0.07480
-0.21527 0.33040 -0.06169
-0.15542 0.30045 -0.18278
-0.12202 0.08759 -0.13316
0.17780 -0.33654 0.12391
0.21123 -0.29804 0.16731
-0.08370 0.08340 -0.18240
-0.08981 0.13891 -0.17319
-0.04322 -0.26988 0.11742
0.01443 0.04307 0.21621
-0.02663 -0.32640 -0.18964
0.02799 -0.24693 -0.05843
-0.02143 -0.20490 0.03160
-0.12525 0.04572 -0.14803
0.17739 -0.25931 0.10029
0.12424 -0.21518 -0.05977
-0.02249 -0.21628 0.02867
-0.01482 -0.15402 0.02153
0.04403 -0.02692 -0.08462
-0.10581 0.20069 0.16964
-0.11485 0.22217 0.14564
-0.11334 0.21327 0.14487
-0.06329 0.15428 0.24845
-0.02521 -0.24862 0.16536
0.06233 -0.02674 -0.13015
0.05309 -0.02686 -0.11921
0.05165 -0.02670 -0.13197
-0.13134 0.10224 -0.00573
-0.13210 0.10450 0.03944
-0.13047 0.09615 0.01231
-0.13024 0.09297 0.04965
-0.13220 0.10652 0.01049
0.20828 0.00381 -0.17142
-0.11620 0.00538 0.14509
-0.15877 -0.25370 0.00287
0.01765 0.13465 0.18652
-0.11140 -0.22900 -0.02089
-0.10195 0.13841 -0.00537
0.17994 -0.27783 -0.13275
0.23490 -0.01994 0.13404
-0.04820 0.00744 -0.12435
-0.06153 0.00748 -0.12705
0.01831 0.00743 -0.13916
-0.03145 -0.21216 0.02799
0.01195 0.03112 0.20777
-0.17441 0.29955 -0.11127
-0.23676 -0.30528 -0.02153
0.23584 -0.33424 0.13800
-0.09729 0.10943 0.03979
-0.05182 0.15815 0.17642
0.06083 -0.08182 -0.00199
-0.16021 0.25760 0.12589
0.22039 -0.04988 0.09431
0.20861 -0.03654 -0.12387
0.20963 -0.03792 -0.06996
0.21332 -0.04197 -0.02076
0.20939 -0.03839 0.04359
0.08494 0.12970 -0.23654
0.16135 -0.31250 0.11940
0.09804 0.12517 0.23109
-0.01906 0.13454 -0.24073
-0.12140 -0.26391 -0.02288
-0.15781 0.29355 -0.17911
-0.01822 -0.29296 -0.18755
-0.12360 0.29597 0.18270
-0.10179 0.13849 -0.02501
0.02586 -0.06178 0.03997
-0.03776 -0.22544 -0.10451
-0.08896 0.03785 -0.19429
-0.01248 -0.03262 -0.02424
0.01449 -0.00470 -0.20791
0.11798 0.12679 0.23164
-0.14320 0.31122 0.10951
-0.03030 -0.33400 -0.23188
0.09271 0.16245 0.19071
-0.12453 0.02525 0.15176
-0.10288 0.00661 0.20858
-0.05046 -0.27944 0.22061
0.08227 -0.23067 -0.00999
0.21072 -0.00136 0.14400
-0.09203 0.13332 -0.16027
-0.05007 0.00264 0.20661
-0.18239 0.34754 0.11005
-0.13203 0.19047 0.18753
-0.13020 0.16537 0.18454
0.03408 0.07607 0.19957
0.01088 -0.24719 0.01038
0.05112 -0.25056 -0.04031
-0.22147 -0.34831 -0.00671
-0.02183 -0.29061 0.12931
-0.09267 0.06555 0.18713
-0.02035 -0.02681 -0.04757
-0.05315 -0.28264 0.23239
-0.00223 -0.20649 0.10500
0.03940 -0.11722 0.03428
0.21512 -0.32700 -0.16440
-0.12824 -0.26318 -0.02267
-0.13182 0.02290 0.02959
0.02158 -0.24720 0.02422
-0.04851 -0.18931 -0.02434
-0.14977 0.32034 0.16966
-0.02558 -0.29943 0.20630
-0.08800 0.19361 -0.20790
-0.15515 0.33141 0.06532
-0.04116 0.01950 0.20561
0.13854 -0.28769 -0.06389
-0.10056 0.13906 -0.09865
-0.02401 -0.30725 0.19882
-0.08510 0.02901 -0.18462
-0.08412 0.12304 0.13236
0.06602 -0.21458 -0.06448
0.04626 0.09141 -0.20009
0.04844 -0.07962 -0.02189
-0.06942 0.01209 -0.18644
0.06661 -0.21945 0.06739
-0.09288 0.01035 0.05002
-0.09108 0.00981 0.03551
-0.01588 -0.09906 -0.01038
-0.01596 -0.10669 0.00071
-0.01585 -0.09277 -0.01150
-0.04012 0.00753 0.14025
-0.00385 0.00766 0.17368
-0.02081 0.00767 0.17711
-0.04025 0.00757 0.14950
0.00833 0.00756 0.14987
0.04265 0.00756 0.15109
0.16570 -0.25067 0.08720
0.06135 -0.04105 0.00150
-0.19121 0.34242 -0.13319
-0.00550 -0.28998 -0.13704
-0.14244 0.25782 0.18938
-0.08675 0.12813 -0.16586
-0.06931 0.00748 0.04277
-0.07019 0.00752 0.03394
-0.10046 0.02016 0.20853
-0.05522 -0.35066 0.21189
0.06574 0.13456 -0.23991
0.00572 0.13440 -0.23797
-0.09486 0.05678 -0.11527
0.08407 -0.02116 -0.19430
0.12930 -0.02114 -0.18943
0.11065 -0.02145 -0.19092
0.01530 0.16907 -0.19259
-0.15336 0.27117 -0.17312
-0.00296 -0.28331 0.12561
0.11793 0.15432 0.21801
-0.19330 -0.28870 0.01812
0.00084 -0.25181 0.13139
-0.11655 0.01337 -0.20019
-0.02464 -0.27007 -0.19244
-0.01081 -0.26153 0.06723
-0.11724 0.22544 0.02019
-0.10591 0.15755 0.06894
-0.11775 0.22998 -0.02633
-0.11912 0.23395 0.09641
-0.11648 0.22309 -0.04236
-0.12245 0.25939 -0.08311
-0.11219 0.19434 0.06801
-0.11934 0.23965 -0.03687
-0.11630 0.22029 0.00969
-0.11643 0.22180 -0.01176
-0.11192 0.19491 0.00169
-0.11674 0.22036 0.08493
-0.11618 0.21875 0.03476
-0.11821 0.22918 0.08018
0.08139 -0.20568 0.07470
0.06841 -0.24399 0.06880
-0.12062 0.07181 -0.16513
-0.13700 0.01492 0.06891
0.00545 0.14123 -0.17543
-0.12489 0.24044 0.20457
-0.06967 -0.02641 0.02931
-0.07312 -0.02632 0.04228
-0.07240 -0.02636 0.08832
-0.08700 -0.02598 0.09135
-0.09005 -0.02589 0.08734
-0.07687 -0.02626 0.13863
0.16864 -0.31769 0.13705
-0.10483 0.18001 -0.14761
-0.10576 0.17436 -0.13935
-0.11443 0.22741 -0.14260
-0.13964 0.15555 -0.09985
-0.14092 0.16628 -0.11873
-0.13478 0.13462 -0.12435
-0.14916 0.21001 -0.11671
-0.13766 0.14370 -0.09362
0.00703 0.01798 -0.20918
-0.10734 0.23998 -0.17341
-0.19001 -0.34444 -0.01702
-0.09422 -0.02214 0.13761
0.02992 -0.20886 0.05878
-0.04296 -0.23431 0.12245
-0.09286 0.09457 -0.20935
-0.16738 -0.26927 -0.01952
-0.09095 0.07391 0.19966
-0.16198 0.29504 0.17452
0.01584 0.06540 0.19222
-0.00734 -0.04207 -0.02824
-0.11652 -0.28786 -0.01839
-0.02089 -0.16362 -0.01605
-0.09409 -0.22714 -0.02447
0.05382 0.12074 0.22714
0.10340 -0.27944 -0.07688
0.20197 -0.28600 -0.10571
0.00414 -0.27325 0.10014
0.00238 0.16124 0.17477
0.09525 -0.21981 0.02304
-0.11084 0.25194 0.17465
-0.03626 0.00770 -0.16798
0.07959 0.13514 0.25117
-0.10663 0.00596 -0.20694
-0.04538 0.16891 -0.24033
0.04293 0.16901 -0.19744
0.06757 0.16905 -0.18322
-0.22282 -0.34423 0.01695
-0.13657 0.13109 0.10508
-0.13724 0.13378 0.09811
-0.14893 0.20193 0.13703
-0.14474 0.17646 0.11504
-0.14738 0.19142 0.12050
-0.12271 -0.29015 0.01797
0.04455 0.00957 0.18762
0.05303 0.01024 0.18848
-0.17514 0.30841 0.15651
-0.04265 -0.29838 -0.25083
-0.01575 -0.16737 0.03002
-0.04667 0.16917 0.21145
-0.12010 0.10747 0.15660
0.05315 0.00734 -0.02070
0.09921 0.00726 -0.12302
0.06325 0.00729 -0.12434
-0.00107 0.00742 0.05821
-0.02421 0.00743 0.02788
-0.03423 0.00742 -0.02740
-0.02422 0.00740 -0.04600
0.02046 0.00734 -0.10189
0.02279 0.00738 -0.00211
0.16603 0.00720 -0.13953
-0.04719 0.00743 -0.01021
0.06779 0.00732 -0.04146
0.03536 0.00734 -0.07253
0.03859 0.00732 -0.11918
-0.01949 0.00743 0.04956
0.05422 0.00734 -0.02720
-0.02285 0.00743 0.04321
-0.04534 0.00744 -0.00156
-0.03799 0.00747 0.10613
-0.03663 0.00739 -0.09124
0.06526 0.00729 -0.12990
0.05787 0.00730 -0.11321
0.09452 0.00727 -0.10686
-0.01830 0.00744 0.05789
-0.05826 0.00745 0.01176
-0.03157 0.00742 -0.01066
0.05700 0.00734 -0.01234
-0.05403 0.00740 -0.10099
0.00334 0.00740 0.00450
-0.01008 0.00737 -0.09965
-0.05894 0.00741 -0.10310
0.08295 0.00730 -0.07227
-0.05425 0.00746 0.03035
-0.07205 0.00742 -0.10487
0.07827 0.00728 -0.11812
-0.03649 0.00740 -0.06773
0.13972 0.00722 -0.13784
0.02074 0.00739 0.01879
0.04271 0.00736 0.00344
-0.01327 0.00742 0.02768
-0.05658 0.00742 -0.05768
0.04410 0.00735 -0.03303
0.04230 0.00733 -0.07009
0.03052 0.00734 -0.07958
-0.11177 0.19151 0.12323
-0.10355 0.14692 0.12373
-0.11451 0.20617 0.12144
-0.03431 -0.33244 -0.24347
-0.05828 -0.30095 0.17289
0.07242 -0.19409 0.00354
0.03470 -0.07641 -0.03795
-0.07967 0.12484 -0.18482
-0.12858 0.02904 -0.08260
0.08055 -0.26118 -0.03826
0.05248 -0.09307 -0.01603
0.05952 -0.11428 -0.00600
-0.02088 -0.18632 -0.03160
-0.12262 -0.23067 -0.01325
-0.06869 -0.28817 0.23586
0.16041 -0.01942 -0.19183
-0.11793 -0.01830 -0.07100
-0.11239 -0.02030 -0.03357
-0.10904 -0.02113 -0.10368
0.06586 0.13369 0.23111
0.05665 -0.02690 -0.06845
0.06239 -0.02688 -0.08371
0.12030 -0.02669 -0.12572
0.06346 -0.02691 -0.03850
0.08563 -0.02682 -0.07353
0.11488 -0.02670 -0.12640
-0.05877 -0.27350 0.17851
0.00285 0.16930 0.21927
-0.03945 0.16917 0.20822
-0.02793 0.16922 0.21446
0.04047 0.16929 0.19804
0.00050 0.16917 0.18934
0.22881 -0.29805 -0.15613
-0.08764 0.18177 0.18696
-0.09359 -0.28058 0.01065
0.05496 0.13440 0.19133
-0.02549 -0.19403 -0.05501
0.20918 0.00261 -0.15909
-0.07345 -0.27105 0.00050
-0.04125 -0.25641 -0.00769
0.13499 -0.01019 -0.20508
-0.08120 0.10287 0.15091
-0.08741 0.02787 0.19224
-0.02072 -0.32285 -0.19784
-0.10255 -0.25198 -0.02408
0.02519 -0.24718 -0.01906
-0.15114 0.32663 0.12958
-0.12707 0.05470 0.14590
-0.12515 0.06773 0.19457
0.01331 -0.25201 -0.10439
0.01353 -0.15308 -0.03481
0.01057 -0.06114 -0.03399
0.01050 -0.08758 -0.03395
0.02286 -0.24665 -0.07936
-0.12709 0.12791 0.17559
-0.13678 0.15664 0.15818
-0.13989 0.18562 0.16656
-0.07317 0.16607 0.22916
0.04155 0.16029 -0.25472
-0.09397 0.07058 0.20325
-0.08760 -0.27765 0.01289
-0.11983 0.24860 -0.20693
-0.00411 -0.07235 0.03025
0.13160 -0.28095 -0.10560
-0.03168 -0.02675 -0.05499
-0.06251 0.13478 -0.22625
0.15644 -0.02709 0.05981
0.14810 -0.02667 0.03608
0.15501 -0.02701 -0.01619
0.15741 -0.02715 0.08960
0.15338 -0.02692 -0.05495
0.16826 -0.02770 0.08958
0.14947 -0.02672 -0.04801
0.09895 -0.20996 0.07891
0.16352 0.00304 0.20795
-0.00357 -0.25312 0.04971
-0.00058 0.00872 -0.18148
-0.15254 0.22978 -0.12481
-0.14871 0.21405 -0.13937
-0.18334 -0.26960 0.00554
-0.08998 0.03935 -0.13964
-0.15486 -0.27366 0.01953
-0.07478 -0.30150 -0.24110
0.05309 0.13120 0.23031
0.05786 -0.03182 0.00979
-0.10768 0.12046 -0.19735
-0.00442 -0.16436 -0.03488
-0.07617 0.13900 0.21304
-0.02241 0.16771 0.24779
-0.03203 -0.02685 0.05734
0.02101 0.00884 0.18580
0.11042 0.00892 -0.20497
0.20014 -0.00415 -0.19290
-0.10190 0.13399 0.06839
-0.01614 -0.13137 0.01747
-0.01583 -0.06476 0.00146
-0.01574 -0.03423 0.00015
0.04570 -0.24751 -0.03582
-0.23017 -0.34352 -0.00642
-0.13603 0.03676 -0.06556
0.00242 -0.26763 0.08443
0.13779 -0.29958 0.10511
0.03132 0.16649 0.17982
-0.09587 0.18652 0.20843
-0.15640 -0.26621 -0.02152
-0.03832 -0.02555 0.19326
0.16965 -0.31822 -0.12907
-0.12469 -0.29518 -0.00219
0.06074 -0.21196 -0.06123
-0.14105 0.16010 -0.01327
-0.13526 0.12488 0.01187
-0.13574 0.13031 -0.03906
-0.14589 0.18585 0.03739
-0.14072 0.15400 0.06695
-0.14235 0.16714 -0.00177
-0.14160 0.15839 0.08199
-0.13999 0.15245 0.01437
-0.14076 0.15535 0.04616
-0.13853 0.14588 -0.02432
-0.14438 0.17458 0.08366
-0.13925 0.14905 -0.00286
0.22957 -0.03580 -0.16131
-0.08612 0.12712 0.14073
-0.08021 0.10779 0.16247
0.16627 -0.01256 -0.20259
0.06338 -0.17832 0.04768
-0.06171 -0.29533 0.18441
-0.03513 -0.29760 0.23476
0.22751 -0.01163 0.14176
0.08083 -0.01122 -0.20645
0.19863 -0.03308 0.14511
-0.16156 0.29881 -0.17525
-0.07640 0.11001 -0.18500
-0.11001 0.10386 -0.20099
-0.01739 0.14794 -0.17423
0.08263 0.00840 0.17075
0.06927 0.00837 0.17244
0.00088 0.05124 0.18955
-0.03523 -0.25871 0.08744
0.14343 -0.25124 0.11406
-0.13560 0.01521 -0.06689
-0.00169 -0.28559 -0.13088
0.13335 -0.23227 -0.09080
-0.01279 0.00772 -0.15341
0.00185 0.00772 -0.15586
0.02944 0.00770 -0.15927
0.03824 0.00781 -0.16993
-0.01163 0.00764 -0.14763
0.00114 0.00757 -0.14432
-0.04617 -0.29354 -0.24755
0.11169 -0.24155 -0.03390
-0.00953 0.13472 0.18651
-0.06972 -0.02606 0.15900
-0.16228 0.28250 0.16024
-0.00573 -0.21322 0.11486
0.23392 -0.31341 -0.15532
0.03525 -0.23525 -0.04836
-0.03238 0.13456 0.20140
0.09391 -0.23209 0.02179
-0.13062 0.05425 0.11288
-0.18027 -0.26889 -0.01214
-0.17000 0.29784 0.15529
-0.17286 0.31451 -0.16509
0.12647 0.14513 -0.22548
0.16334 -0.26896 -0.07529
-0.13398 0.30957 -0.15582
-0.06518 0.16905 0.23191
0.00372 0.13443 -0.18873
-0.05751 -0.33363 0.24854
0.05333 0.00888 -0.18304
0.20754 -0.00300 0.18820
0.08322 -0.02670 0.11289
0.00375 -0.02661 0.11596
0.04607 -0.02674 0.09319
0.11854 -0.02659 0.15075
0.10236 -0.02666 0.12937
0.06005 -0.02656 0.14205
0.05286 -0.02668 0.11184
0.03732 -0.02674 0.09164
0.10424 -0.02659 0.14634
0.04405 -0.02678 0.08219
0.03696 -0.02666 0.11039
0.05810 -0.02672 0.10343
0.13506 -0.02662 0.14736
0.03175 -0.02663 0.11683
0.01823 0.13968 -0.17691
0.22441 -0.00759 -0.06412
0.23757 -0.02242 0.10377
0.23740 -0.02210 0.08675
0.22851 -0.01335 0.12133
-0.00753 0.13449 -0.21259
-0.01098 0.13451 -0.19838
0.00500 0.13441 -0.20980
-0.13088 0.09548 0.10509
-0.13459 -0.00111 0.12808
0.06042 -0.02873 -0.00554
-0.03693 -0.33408 0.24050
-0.08291 -0.20473 -0.01006
-0.06100 -0.19026 -0.00349
-0.08335 0.09272 0.14588
-0.11070 -0.02101 0.00300
-0.11948 -0.01846 0.09841
-0.10000 -0.02423 -0.07603
-0.10258 -0.02367 0.01767
-0.11221 -0.02055 0.01135
0.17609 -0.29730 -0.08534
0.00865 -0.03318 -0.03365
-0.05927 -0.24808 -0.02648
-0.12713 0.03787 0.17808
0.09416 -0.27283 -0.06181
-0.11437 0.00232 0.19456
-0.11758 0.00875 0.19439
-0.01173 -0.02683 -0.04853
0.04254 -0.00659 -0.20776
-0.16543 0.33059 0.15599
-0.08544 0.11505 -0.20936
-0.06237 0.13491 0.23071
0.14378 -0.01469 0.20451
-0.01759 -0.18085 -0.05556
-0.16131 0.26238 0.10335
-0.16342 0.27059 0.10267
-0.15871 0.25267 0.09047
-0.16086 0.26103 0.08931
-0.16111 0.26523 -0.02295
-0.02690 -0.02589 0.17613
-0.05706 -0.02640 0.14456
-0.03524 -0.02593 0.17282
-0.04605 -0.02639 0.14607
0.01352 -0.02612 0.16778
0.01739 -0.02636 0.15490
0.01797 -0.02595 0.17784
0.01352 -0.02645 0.14994
-0.11643 -0.01831 -0.11836
-0.12382 -0.01618 0.08064
-0.13776 0.30843 0.14331
0.06297 -0.02693 -0.01486
-0.10195 0.13620 0.04032
-0.21281 -0.31891 0.02073
0.12313 0.13429 0.20792
-0.15005 0.32253 0.03970
-0.14510 0.31408 -0.01625
-0.14635 0.31681 -0.06317
-0.15204 0.32612 0.04271
-0.14929 0.32180 -0.02759
-0.14825 0.32040 -0.07730
-0.14087 0.30695 -0.07530
-0.02396 -0.19114 0.04531
-0.13345 0.29678 -0.11433
-0.07616 0.01512 0.19627
-0.17419 -0.28898 0.01819
-0.18787 -0.33038 0.02041
0.03963 0.08622 0.20138
-0.04419 -0.02659 0.10718
-0.04932 0.14139 -0.17858
-0.00418 0.05992 -0.19087
-0.05329 -0.30793 -0.25217
-0.11836 0.01532 -0.16987
-0.07585 -0.20946 -0.02441
-0.11194 0.19583 -0.01859
-0.10757 0.17345 -0.07176
-0.10486 0.15618 -0.03378
-0.10836 0.17491 -0.00739
-0.10277 0.14348 -0.01631
-0.10268 0.14094 0.02578
-0.10449 0.15360 -0.02365
-0.10547 0.16229 -0.08850
-0.10941 0.18109 -0.01201
-0.11067 0.18798 -0.00585
-0.10326 0.14553 -0.00044
-0.10436 0.15569 -0.08235
-0.10534 0.15754 -0.00411
-0.09220 0.06034 -0.13461
0.00271 0.16227 -0.17502
0.07981 0.13325 -0.24582
0.00334 -0.24398 0.12510
-0.15151 0.32922 -0.11415
-0.12164 -0.25629 0.02188
0.10517 -0.22896 -0.08903
0.02821 -0.02558 0.18686
0.15181 -0.02488 0.17111
0.11331 -0.02486 0.17813
0.13336 -0.02620 0.16286
-0.17938 0.32059 -0.15700
-0.14422 0.31762 0.12362
-0.21857 -0.30779 0.02021
-0.12677 0.00927 -0.13199
0.07937 0.12993 0.19670
0.08014 -0.25496 -0.07340
0.12297 -0.28804 -0.07974
0.22335 -0.04762 -0.14107
-0.21490 0.34951 -0.06546
0.11009 -0.21990 0.03585
0.16494 -0.30260 -0.08407
-0.15565 -0.30331 -0.01884
-0.19674 -0.31358 0.02099
0.01632 -0.25526 0.06174
-0.14262 0.31054 -0.10115
-0.13612 0.30107 -0.11129
-0.06172 -0.34982 0.22255
-0.13581 0.13523 -0.10050
-0.13542 0.13638 -0.11621
-0.13372 0.12496 -0.10513
0.05983 -0.24941 0.02423
-0.04242 0.01090 0.21100
0.08587 -0.19631 -0.06337
0.09914 0.15893 0.24430
0.14411 -0.24333 0.10514
-0.08127 0.16378 -0.18752
-0.10766 0.22901 -0.17099
0.12254 -0.24456 -0.09985
0.01830 -0.17208 -0.05413
0.04723 0.16312 -0.17489
0.12772 0.14212 -0.21105
0.07007 0.14182 0.25535
-0.02934 -0.02661 -0.11364
0.00077 -0.02674 -0.11113
-0.00821 -0.02676 -0.08594
-0.01555 -0.02678 -0.06235
0.03491 -0.02690 -0.09855
0.00669 -0.02677 -0.10713
0.01654 -0.02681 -0.10833
-0.00043 0.13745 0.17906
0.03762 0.07912 -0.21894
-0.15487 0.25434 -0.14755
0.04336 0.12818 0.22948
0.00255 0.13442 -0.22006
0.02939 0.01042 0.19281
0.24030 -0.05038 0.07066
0.24317 -0.04631 -0.04031
0.06542 0.01215 -0.19133
0.08584 0.16004 0.25024
-0.12331 0.21571 0.20200
-0.01022 -0.24453 -0.00517
0.11002 0.15801 -0.20736
-0.00212 -0.25023 0.04320
0.05829 0.12072 0.22313
-0.10870 0.18561 -0.12637
-0.10476 0.16273 -0.11866
-0.10180 0.14354 -0.10344
-0.10544 0.16338 -0.10419
0.23278 -0.02312 0.15862
-0.13375 0.03850 -0.09352
0.08813 -0.02683 -0.03923
0.23972 -0.30247 -0.14266
-0.03361 0.13465 -0.18965
-0.01487 0.13453 -0.21702
-0.04700 0.16927 -0.19097
0.08024 -0.19118 -0.05779
-0.02830 -0.24295 -0.06643
-0.21939 -0.31080 -0.02327
-0.22610 -0.31475 -0.02334
-0.04509 -0.00056 -0.20957
-0.04806 -0.02675 0.06945
-0.04198 -0.02683 0.03001
-0.02855 -0.02703 0.00271
-0.05935 -0.02654 -0.11292
-0.04251 -0.02680 -0.05660
-0.05247 -0.02668 0.06092
-0.06387 -0.02649 -0.01782
-0.06765 -0.02640 -0.13986
-0.11330 0.09238 -0.17108
0.10590 -0.28033 0.07513
-0.02098 -0.27009 -0.18881
-0.10080 0.25367 -0.20375
-0.04715 -0.02660 0.09963
0.09080 -0.27159 -0.07228
-0.13240 0.27703 0.19776
0.03265 0.10477 -0.22536
-0.03124 -0.23184 0.07372
-0.17020 0.30426 -0.15485
-0.04941 -0.27079 0.14066
0.11193 -0.21882 0.08589
-0.08150 0.13787 0.20629
0.21067 -0.30908 -0.10843
-0.00865 -0.28345 0.11709
0.11606 0.15478 0.19400
-0.12218 0.06382 -0.13683
-0.16354 0.29223 -0.15919
0.13289 -0.23773 0.10287
-0.15841 0.25883 -0.09192
-0.15945 0.26251 -0.09498
-0.15921 0.25627 0.03468
-0.06913 0.15525 -0.24435
-0.03451 0.14390 -0.25555
0.18299 -0.27117 0.12636
-0.08347 0.02164 0.18069
-0.09890 0.25710 -0.18946
-0.10164 -0.00908 -0.14957
0.10259 0.15916 0.20249
0.03715 0.00551 0.20675
0.09622 -0.20165 -0.06265
-0.16559 0.33830 0.05065
-0.15741 0.33422 -0.04613
-0.06936 0.14640 0.18335
-0.11406 0.28099 -0.19516
0.02379 -0.21975 0.07380
-0.11703 0.08077 -0.18254
-0.10785 0.24267 -0.20755
0.01869 -0.23309 -0.09020
-0.07224 -0.31804 -0.24728
-0.21212 -0.28424 -0.01981
0.02859 0.00743 -0.14036
0.07149 0.16840 0.20856
0.21605 -0.28158 -0.13817
0.22148 -0.32101 -0.16517
-0.04668 0.15565 0.17453
-0.11166 -0.24751 0.02272
-0.10241 0.02785 -0.12255
-0.07404 0.16275 0.23835
0.18648 -0.02926 0.00312
0.19473 -0.03270 0.09344
0.18755 -0.02976 0.03058
0.18899 -0.03015 -0.01971
-0.08112 0.12308 -0.15500
-0.12899 0.27615 0.09655
-0.13024 0.28557 -0.00692
-0.12733 0.27263 0.00673
-0.12984 0.27935 0.10719
-0.12651 0.26936 0.00151
-0.12361 0.25524 0.04620
-0.12713 0.27032 0.04350
-0.12490 0.25885 0.09367
0.03386 -0.23951 -0.04383
0.24358 -0.04285 0.03185
0.24209 -0.03599 0.12252
0.24301 -0.03567 0.02759
-0.09891 0.20598 -0.20985
0.07526 -0.17667 0.02740
0.02278 -0.16822 0.05077
0.03284 -0.12742 -0.03861
-0.00825 -0.04596 0.02851
0.16714 0.00929 0.17337
-0.22180 -0.32839 0.02033
-0.15165 0.32083 -0.17119
-0.17496 0.34379 0.12010
-0.09855 0.12033 -0.08164
-0.09856 0.11926 0.00118
-0.09419 0.07769 -0.04319
-0.09349 0.07393 -0.07211
-0.09347 0.08330 -0.10173
-0.07646 0.10862 -0.19650
-0.03065 -0.24408 0.07128
-0.02891 -0.25855 -0.17914
-0.11010 0.27346 -0.19874
-0.12993 -0.00401 -0.03601
-0.13310 0.00164 -0.04231
-0.13056 -0.00274 -0.05000
-0.15951 0.32055 0.16923
-0.09463 0.01088 0.06137
-0.09053 0.01004 -0.09012
-0.02118 -0.23019 -0.03109
-0.18709 0.31506 0.04909
-0.18898 0.31606 0.03122
-0.18883 0.31595 0.04135
-0.18343 0.31366 -0.06297
-0.19850 0.32060 0.07855
-0.04283 -0.35149 -0.22086
-0.11472 0.27303 -0.17058
-0.08532 0.02946 -0.17705
-0.03856 -0.33634 -0.19063
0.08186 0.12920 0.21310
-0.18173 0.31340 -0.12560
0.06129 -0.13447 0.00190
0.21874 -0.29847 0.16706
0.08337 0.16503 0.20108
-0.00584 -0.22137 -0.12531
0.17436 -0.32971 0.12221
-0.01973 -0.02681 0.04980
0.09131 -0.26678 -0.04314
0.23904 -0.05286 -0.02380
0.23821 -0.05307 -0.00494
-0.15434 0.26706 -0.16618
0.06211 -0.24571 -0.00712
0.07054 -0.24805 -0.00998
-0.13689 0.01255 0.00445
0.23660 -0.02194 0.14341
0.00827 0.07111 0.19172
0.00105 -0.19822 -0.09127
-0.09577 0.07505 0.07470
-0.09587 0.08415 0.07383
-0.09429 0.09084 -0.07349
-0.09561 0.07579 0.05955
-0.09608 0.09279 0.08360
0.03945 0.12514 0.19884
0.00332 -0.26101 -0.06792
-0.02659 -0.30168 0.15192
0.24317 -0.04650 -0.05239
0.18102 0.01213 -0.18497
-0.06456 0.14014 0.18398
0.13968 -0.26818 0.06001
0.21209 -0.34236 0.16173
-0.13726 0.30967 -0.13605
-0.05343 -0.34775 -0.23283
-0.14302 0.16970 0.02422
-0.14896 0.19986 0.11386
-0.13823 0.13867 0.08190
-0.14011 0.15388 0.00100
-0.14090 0.15829 0.00449
-0.13600 0.12659 0.06310
-0.14887 0.19996 0.10174
-0.14734 0.19265 0.06979
-0.14521 0.17952 0.08212
-0.13589 0.12492 0.08333
-0.15491 0.23393 0.12856
-0.14021 0.15053 0.07710
-0.14674 0.18741 0.10320
-0.13767 0.13722 0.04599
-0.09163 -0.21009 0.00593
-0.07029 -0.19601 0.01091
-0.02114 -0.25343 -0.17179
-0.13593 -0.28106 0.02088
-0.16290 0.26826 0.11653
0.18235 -0.00292 -0.20056
-0.03959 -0.29135 -0.13093
-0.09236 0.07575 -0.11165
0.22196 -0.00681 0.13195
0.20805 -0.35029 0.14468
-0.09701 0.01234 0.06681
-0.06571 -0.20062 -0.02433
-0.17214 0.30124 -0.13111
-0.05303 -0.28411 -0.23499
-0.09836 0.11551 0.04840
-0.10078 0.12784 0.05619
-0.10034 0.12416 0.07894
-0.07409 -0.30848 -0.22560
0.05489 -0.02686 0.05873
-0.02071 -0.24494 -0.02219
-0.14508 0.23165 -0.16875
-0.13689 0.19983 -0.17735
-0.14421 0.21214 -0.15663
-0.13776 0.20532 -0.17814
0.04990 0.09972 -0.19943
-0.01696 0.01982 0.18611
0.20088 0.00703 -0.17690
0.12680 -0.27289 -0.10254
-0.14838 0.27220 0.18546
-0.01555 -0.28612 -0.18025
-0.04922 -0.23129 0.02668
-0.08091 -0.22453 0.02447
-0.10670 0.02780 0.07712
-0.03298 0.00625 -0.21443
-0.20295 -0.34251 0.01931
-0.00386 0.16199 -0.25427
0.17802 0.00923 0.17613
0.23078 -0.33142 0.12898
-0.12231 0.02482 -0.15735
-0.19126 0.31856 -0.10645
-0.08449 0.15037 0.20711
-0.02202 -0.24018 -0.15182
0.18320 0.00787 -0.16107
-0.04949 -0.26605 -0.18318
-0.11804 0.03416 -0.20691
-0.13678 0.00995 0.01964
-0.09807 0.11359 0.20857
-0.08867 -0.01814 -0.17864
0.01309 0.11670 0.21977
0.04770 0.00762 -0.15627
0.02337 0.00779 -0.16556
-0.00123 0.00791 -0.17047
0.11774 0.00746 -0.15690
0.05509 0.00744 -0.14408
-0.01896 0.00767 -0.14821
0.01908 0.00761 -0.15084
-0.09372 0.08923 -0.10403
-0.05804 -0.28893 0.24029
-0.07933 0.00786 -0.06270
-0.07054 0.00756 0.05157
-0.04639 -0.27624 0.20346
-0.11148 0.13184 0.19852
-0.08024 0.11006 0.19924
-0.12522 -0.27735 0.02160
-0.02339 0.13451 0.20678
-0.17581 0.29903 -0.03908
